0.009922 0.002935 0.005042 0 156 98 26708190
0.018993 0.022177 0.051516 142 255 0 25216112
0.017898 0.021986 0.051595 143 255 0 25156430
0.015902 0.021725 0.051613 143 255 0 25216112
0.014898 0.021488 0.051618 143 255 0 25245954
0.016903 0.021837 0.051614 143 255 0 25245954
0.013910 0.021415 0.051656 143 255 0 25186272
0.012901 0.021342 0.051632 143 255 0 25245954
0.004895 0.018060 0.050374 136 255 0 24261184
-0.077736 0.066672 0.037904 71 255 0 23365936
-0.046087 0.027622 0.052796 149 255 0 25126588
-0.045099 0.027498 0.052805 149 255 0 24917698
-0.044098 0.027275 0.052785 149 255 0 25365320
-0.043099 0.027147 0.052794 149 255 0 25216112
0.003894 0.019592 0.053115 151 255 0 24111976
-0.006097 0.019647 0.053158 151 255 0 23067522
-0.005084 0.019347 0.053128 151 255 0 23127204
-0.088582 0.038712 0.034518 54 255 0 27782486
-0.037095 0.027630 0.054211 157 255 0 24410392
-0.089594 0.048882 0.069841 237 255 0 25156430
-0.012923 0.049006 0.064071 207 255 0 22112592
-0.014093 0.019426 0.050314 136 255 0 22351324
-0.053045 0.034695 0.081055 255 213 0 27185656
-0.062925 0.076176 0.094458 255 144 0 36018756
-0.008077 0.024301 0.058552 179 255 0 21605284
-0.009077 0.024680 0.058537 179 255 0 21456078
-0.088238 0.040726 0.037191 68 255 0 27842170
-0.089030 0.020925 0.072756 252 255 0 25484686
0.040514 0.039931 0.040462 85 255 0 25126588
-0.070074 0.004746 0.058028 176 255 0 22918314
-0.068543 0.067101 0.064512 210 255 0 26887240
-0.074117 0.007705 0.070673 242 255 0 24201500
-0.076085 0.013271 0.079055 255 224 0 23962768
0.043981 0.031941 0.002608 0 143 111 29662504
0.044971 0.032661 0.002595 0 143 111 30080286
0.045932 0.032680 0.002602 0 143 111 30378702
0.046900 0.032343 0.002604 0 143 111 30289178
0.048899 0.031622 0.002635 0 144 110 29453614
0.049900 0.031586 0.002668 0 144 110 29393930
0.050909 0.031581 0.002669 0 144 110 29005990
0.051910 0.031624 0.002629 0 143 111 28409160
0.052937 0.031920 0.002664 0 144 110 27752646
0.053918 0.032124 0.002589 0 143 111 27036448
-0.087462 0.050903 0.072584 252 255 0 24798332
0.031831 0.021269 0.036934 67 255 0 25783102
0.045380 0.035932 0.020986 0 239 15 26917082
-0.057023 0.032082 -0.003827 0 110 144 29960920
-0.091641 0.021850 0.061785 195 255 0 27782486
-0.089145 0.041690 0.031827 40 255 0 27036448
0.041231 0.059910 0.036190 63 255 0 24977380
0.042928 0.051936 0.036313 63 255 0 24917698
0.015022 0.034483 0.063050 202 255 0 25454846
0.012441 0.035440 0.064254 208 255 0 25096746
-0.057788 0.051124 0.092208 255 155 0 34437152
-0.000874 0.028700 0.062269 198 255 0 22977996
0.017026 0.026512 0.056924 171 255 0 25514528
-0.067393 0.069159 0.095409 255 139 0 34437152
-0.068060 0.069411 0.096197 255 135 0 33541906
-0.085716 0.033081 0.087000 255 183 0 22440848
-0.075669 0.023736 0.087131 255 182 0 23932926
-0.065327 0.077055 0.098148 255 124 0 32348244
-0.039465 0.078500 0.039042 77 255 0 25723420
-0.067545 0.067165 0.063063 202 255 0 26558982
-0.056632 0.059955 0.079046 255 224 0 38137504
-0.078450 0.062983 0.051159 141 255 0 23992610
-0.020468 0.080967 0.039271 79 255 0 25604054
-0.072478 0.065505 0.051278 141 255 0 24141818
-0.035789 0.072159 0.103010 255 99 0 32766026
-0.071507 0.068874 0.042746 97 255 0 23664352
-0.042397 0.079919 0.023271 0 251 3 26200884
-0.004424 0.094031 0.024447 2 255 0 25633894
-0.008422 0.094679 0.024485 2 255 0 25335480
-0.007427 0.094532 0.024471 2 255 0 25425004
-0.005465 0.081017 0.039338 79 255 0 26708190
-0.002414 0.093680 0.024440 2 255 0 25842786
-0.067558 0.066618 0.067428 225 255 0 28319634
-0.045081 0.016587 0.005323 0 157 97 27543754
-0.044085 0.016206 0.005355 0 157 97 27573596
-0.043092 0.016051 0.005358 0 157 97 27752646
-0.042104 0.016088 0.005328 0 157 97 27931694
-0.041094 0.016195 0.005347 0 157 97 28080902
-0.040095 0.016282 0.005333 0 157 97 28230110
-0.039096 0.016289 0.005332 0 157 97 28200268
-0.038095 0.016195 0.005345 0 157 97 28259952
-0.037096 0.016169 0.005343 0 157 97 28289794
-0.036097 0.016175 0.005343 0 157 97 28409160
-0.035104 0.016323 0.005334 0 157 97 28230110
-0.034104 0.016567 0.005313 0 157 97 28080902
-0.033097 0.017058 0.005267 0 157 97 27812328
-0.032116 0.017610 0.005230 0 157 97 27185656
-0.031098 0.018074 0.005181 0 157 97 26767874
-0.030095 0.018444 0.005149 0 157 97 26111360
-0.029098 0.018553 0.005133 0 157 97 25633894
-0.028097 0.018318 0.005159 0 157 97 25484686
-0.027169 0.017682 0.005289 0 157 97 25842786
0.037656 0.036064 0.044528 106 255 0 25156430
0.037088 0.036261 0.045590 112 255 0 25216112
-0.014159 0.034934 0.062533 200 255 0 21127820
-0.057729 0.040949 0.090329 255 165 0 27991378
0.044571 0.033542 0.005487 0 158 96 29931078
-0.004833 0.030123 0.062913 201 255 0 21844018
-0.070646 0.077578 0.101199 255 109 0 28498684
-0.065854 0.075811 0.098030 255 125 0 32139354
-0.055310 0.044413 0.089915 255 167 0 32079670
-0.017075 0.003390 0.006420 0 163 91 25932310
-0.016118 0.003068 0.006418 0 163 91 26111360
-0.015100 0.002969 0.006435 0 163 91 26290408
-0.014084 0.003178 0.006405 0 163 91 26648508
-0.013193 0.003299 0.006458 0 163 91 26976764
-0.012057 0.002695 0.006505 0 163 91 26917082
-0.011104 0.002236 0.006488 0 163 91 26767874
-0.010095 0.001783 0.006536 0 164 90 26648508
-0.009071 0.001242 0.006600 0 164 90 26588824
-0.008083 0.000732 0.006632 0 164 90 26320250
-0.007104 0.000441 0.006638 0 164 90 26350092
-0.006089 0.000125 0.006676 0 165 89 26200884
-0.005098 -0.000034 0.006677 0 165 89 26021834
-0.004100 -0.000068 0.006665 0 165 89 25902468
-0.003092 -0.000074 0.006661 0 164 90 25902468
-0.002089 0.000062 0.006652 0 164 90 26021834
-0.001080 0.000297 0.006635 0 164 90 26081518
-0.000059 0.000715 0.006577 0 164 90 26469458
0.000916 0.001030 0.006586 0 164 90 26469458
0.001928 0.001466 0.006542 0 164 90 26648508
0.002929 0.001918 0.006499 0 163 91 26917082
0.003908 0.002113 0.006501 0 163 91 26946924
0.004903 0.002008 0.006514 0 163 91 26797716
0.005906 0.001881 0.006522 0 164 90 26678350
0.006907 0.001878 0.006522 0 164 90 26529142
0.007903 0.002028 0.006517 0 163 91 26558982
0.008922 0.002328 0.006481 0 163 91 26588824
0.010879 0.020627 0.051645 143 255 0 24947540
-0.061601 0.112700 0.107355 255 77 0 23932926
-0.073086 0.005513 0.062266 198 255 0 24947540
-0.004088 0.018329 0.051766 144 255 0 23425620
-0.003086 0.018221 0.051757 144 255 0 23574828
-0.002089 0.018203 0.051772 144 255 0 23574828
-0.001093 0.018072 0.051780 144 255 0 23664352
0.009892 0.020342 0.051676 143 255 0 24708806
-0.051589 0.051821 0.096215 255 135 0 31423156
-0.047091 0.052675 0.098575 255 122 0 29125356
-0.088160 0.054864 0.064320 209 255 0 23903084
-0.041962 0.070413 0.056145 166 255 0 25723420
-0.073105 0.004911 0.053798 154 255 0 22918314
-0.042103 0.026887 0.052809 149 255 0 25037064
-0.040099 0.026622 0.052830 149 255 0 24947540
-0.007098 0.019793 0.053142 151 255 0 22918314
-0.072098 0.004518 0.055218 162 255 0 22679580
-0.038100 0.027744 0.054216 157 255 0 24589440
-0.052883 0.042057 0.087519 255 180 0 31005374
-0.012097 0.018903 0.050351 136 255 0 22560214
-0.053491 0.033702 0.081047 255 213 0 26976764
0.033739 0.036075 0.050426 136 255 0 25245954
0.025461 0.034907 0.057773 174 255 0 25932310
0.041021 0.056927 0.039020 77 255 0 24887856
0.038546 0.061976 0.038794 77 255 0 25216112
-0.084232 0.053735 0.043749 102 255 0 25842786
-0.027489 0.089711 0.025168 5 255 0 25872628
-0.002000 0.030552 0.063364 204 255 0 22440848
0.042876 0.044938 0.036341 64 255 0 25096746
-0.074093 0.013081 0.079011 255 224 0 23783718
-0.075089 0.013158 0.079048 255 224 0 23783718
-0.092079 0.020843 0.060420 189 255 0 27036448
0.044954 0.033452 0.003975 0 151 103 30229494
-0.009040 0.077839 0.102962 255 100 0 21008454
0.042536 0.049939 0.037698 71 255 0 24887856
-0.062299 0.066676 0.085476 255 190 0 39957840
0.048898 0.033025 0.003934 0 151 103 30319018
-0.093097 0.045822 0.057589 174 255 0 24619282
0.052921 0.032993 0.003954 0 151 103 28200268
-0.044589 0.065957 0.101757 255 106 0 28289794
-0.050995 0.061921 0.096031 255 136 0 35481608
-0.023550 0.035313 0.058600 179 255 0 22112592
0.042189 0.066880 0.023519 0 252 2 23903084
-0.063019 0.100698 0.102636 255 101 0 38167348
0.027998 0.018034 0.036969 67 255 0 25723420
0.026640 0.030187 0.054485 158 255 0 25335480
0.024592 0.030942 0.056728 169 255 0 25544370
0.018221 0.033298 0.060951 192 255 0 25991994
0.006236 0.031933 0.064140 208 255 0 23992610
-0.053953 0.049730 0.093450 255 149 0 33153966
-0.063196 0.067584 0.088937 255 172 0 39271484
-0.063693 0.067773 0.090046 255 166 0 38943228
-0.066052 0.068657 0.093842 255 147 0 36406696
-0.089568 0.043312 0.085777 255 189 0 20262416
-0.032194 0.036947 0.059348 183 255 0 23962768
-0.009986 0.049372 0.064715 211 255 0 22172274
-0.011251 0.049835 0.064384 209 255 0 22172274
-0.012449 0.050275 0.064096 207 255 0 22351324
-0.038462 0.078463 0.039036 77 255 0 25783102
0.005583 0.091014 0.025706 8 255 0 25693578
-0.018827 0.081670 0.113446 255 45 0 24231342
-0.027724 0.074510 0.100070 255 115 0 35213032
-0.050692 0.062960 0.090928 255 162 0 38376240
-0.074542 0.066069 0.064461 210 255 0 25216112
-0.076312 0.033640 0.005505 0 158 96 25902468
-0.056022 0.018117 0.006634 0 164 90 27334864
-0.043402 0.080004 0.023261 0 251 3 26171042
-0.009468 0.081355 0.039335 79 255 0 26111360
0.010528 0.077855 0.042103 94 255 0 27543754
-0.052683 0.061246 0.086468 255 185 0 39569900
-0.070553 0.066279 0.068879 233 255 0 28498684
-0.006469 0.081106 0.039333 79 255 0 26648508
-0.001462 0.080624 0.039331 79 255 0 26797716
-0.047097 0.017043 0.006668 0 165 89 27334864
-0.046084 0.016578 0.006727 0 165 89 27454230
-0.045089 0.016183 0.006752 0 165 89 27484072
-0.044098 0.015891 0.006765 0 165 89 27633278
-0.043096 0.015770 0.006778 0 165 89 27722804
-0.042100 0.015861 0.006760 0 165 89 27931694
-0.041096 0.016000 0.006754 0 165 89 28021220
-0.040095 0.016150 0.006745 0 165 89 27991378
-0.039097 0.016174 0.006749 0 165 89 28021220
-0.038094 0.016129 0.006745 0 165 89 27991378
-0.037096 0.016034 0.006757 0 165 89 28080902
-0.036099 0.016060 0.006759 0 165 89 28080902
-0.035090 0.016253 0.006733 0 165 89 27991378
-0.034093 0.016520 0.006714 0 165 89 27752646
-0.033095 0.016916 0.006682 0 165 89 27573596
-0.032094 0.017426 0.006638 0 164 90 27096130
-0.031102 0.017837 0.006610 0 164 90 26618666
-0.030095 0.018180 0.006571 0 164 90 26051676
-0.029091 0.018207 0.006579 0 164 90 25783102
-0.028124 0.017880 0.006577 0 164 90 25693578
-0.027244 0.017146 0.006582 0 164 90 26171042
-0.026189 0.037725 0.058771 180 255 0 22679580
-0.019926 0.045763 0.062442 199 255 0 22351324
-0.046900 0.053132 0.099257 255 118 0 28319634
-0.068907 0.076943 0.100420 255 112 0 29722188
-0.064618 0.075356 0.096246 255 134 0 34466996
-0.066385 0.042588 0.091008 255 162 0 25902468
-0.017078 0.003022 0.007840 0 171 83 25962152
-0.016085 0.002770 0.007855 0 171 83 26171042
-0.015092 0.002749 0.007850 0 171 83 26469458
-0.014105 0.002697 0.007837 0 171 83 26618666
-0.013080 0.002327 0.007905 0 171 83 26827556
-0.012102 0.002118 0.007888 0 171 83 26857398
-0.011101 0.001885 0.007910 0 171 83 26797716
-0.010094 0.001545 0.007944 0 171 83 26887240
-0.009091 0.001075 0.007983 0 171 83 26767874
-0.008095 0.000579 0.008020 0 171 83 26439616
-0.007115 0.000173 0.008042 0 171 83 26260568
-0.006087 -0.000230 0.008090 0 171 83 26051676
-0.005118 -0.000370 0.008070 0 171 83 25932310
-0.004097 -0.000518 0.008102 0 172 82 25842786
-0.003095 -0.000546 0.008098 0 171 83 25783102
-0.002090 -0.000435 0.008084 0 171 83 25872628
-0.001082 -0.000191 0.008065 0 171 83 25962152
-0.000073 0.000160 0.008034 0 171 83 26320250
0.000942 0.000615 0.007992 0 171 83 26469458
0.001928 0.001240 0.007950 0 171 83 26678350
0.002922 0.001823 0.007905 0 171 83 27066290
0.003903 0.001900 0.007914 0 171 83 27036448
0.004904 0.001723 0.007919 0 171 83 26767874
0.005906 0.001618 0.007931 0 171 83 26618666
0.006909 0.001623 0.007930 0 171 83 26499300
0.007922 0.001819 0.007908 0 171 83 26529142
0.008921 0.002089 0.007890 0 171 83 26529142
-0.020103 0.022068 0.051617 143 255 0 22142432
-0.013111 0.019881 0.051744 144 255 0 22023066
-0.017098 0.020185 0.050281 136 255 0 22261800
-0.013090 0.024505 0.057166 171 255 0 21247186
-0.070746 0.112130 0.109897 255 64 0 24291024
-0.015131 0.020857 0.051678 143 255 0 22082750
-0.014113 0.020259 0.051725 143 255 0 21933542
-0.012085 0.019572 0.051717 143 255 0 22291640
0.002893 0.017718 0.050372 136 255 0 24141818
-0.017650 0.047839 0.062931 201 255 0 22321482
-0.072096 0.004434 0.056634 169 255 0 22977996
0.014795 0.041706 0.064321 209 255 0 26200884
-0.068108 0.017845 0.083218 255 202 0 23276412
-0.074107 0.005177 0.053794 154 255 0 23634510
-0.041098 0.026641 0.052812 149 255 0 24977380
-0.008102 0.019879 0.053167 151 255 0 22798948
-0.071092 0.004572 0.055224 162 255 0 22470690
-0.039103 0.027873 0.054212 157 255 0 24917698
-0.092574 0.032795 0.053587 153 255 0 27245338
-0.025183 0.088709 0.027876 20 255 0 26141202
-0.013097 0.019161 0.050337 136 255 0 22500532
-0.088346 0.041724 0.037190 68 255 0 27722804
-0.081147 0.006493 0.059318 183 255 0 26708190
0.042942 0.057935 0.033494 49 255 0 24828172
0.040639 0.057926 0.038996 77 255 0 24917698
-0.062296 0.074689 0.083860 255 198 0 37570516
0.041906 0.049938 0.039073 78 255 0 24858014
-0.081064 0.005894 0.065061 213 255 0 24231342
-0.075107 0.006127 0.067885 228 255 0 24111976
0.045187 0.039944 0.026595 13 255 0 25633894
-0.077067 0.013438 0.079010 255 224 0 24022450
-0.083415 0.032752 0.042463 95 255 0 29125356
0.042057 0.066875 0.024912 4 255 0 23843402
-0.058415 0.066272 0.058071 177 255 0 26350092
-0.052515 0.036705 0.079520 255 222 0 28080902
-0.094050 0.040834 0.057635 174 255 0 25037064
0.043258 0.035935 0.032125 41 255 0 25216112
0.043487 0.036941 0.032132 41 255 0 25186272
0.044598 0.047939 0.032197 42 255 0 25245954
-0.000466 0.080479 0.039322 79 255 0 26917082
0.045416 0.049938 0.029414 28 255 0 25305638
0.045297 0.047942 0.029410 27 255 0 25156430
0.045275 0.046945 0.029404 27 255 0 25126588
-0.073146 0.070274 0.097036 255 130 0 29065674
-0.038979 0.055660 0.062958 201 255 0 28259952
0.034126 0.033084 0.048837 128 255 0 25037064
-0.094101 0.037845 0.060374 189 255 0 25663736
0.004833 0.026661 0.060851 191 255 0 24171658
-0.045096 0.043221 0.066507 220 255 0 27484072
-0.033026 0.037259 0.059811 186 255 0 24440232
-0.000135 0.010618 0.035167 57 255 0 25663736
0.031276 0.029871 0.050150 136 255 0 25037064
0.032460 0.029422 0.048277 125 255 0 25066906
0.033009 0.029219 0.047275 121 255 0 25066906
-0.043556 0.044088 0.064437 210 255 0 26827556
-0.062739 0.067417 0.087723 255 179 0 39420692
-0.072817 0.030275 0.089924 255 167 0 23485302
-0.009853 0.087698 0.113831 255 43 0 14682044
-0.071410 0.019198 0.084787 255 194 0 23395778
-0.007649 0.048510 0.065183 213 255 0 22500532
-0.008784 0.048928 0.064971 212 255 0 22261800
-0.053964 0.038109 0.088195 255 176 0 26409776
-0.065021 0.036309 0.091151 255 161 0 25245954
0.004586 0.091036 0.025710 8 255 0 25962152
0.003576 0.091252 0.025707 8 255 0 26051676
-0.061537 0.027194 -0.000396 0 127 127 28886624
-0.053403 0.080219 0.023238 0 251 3 24350708
-0.052400 0.080087 0.023233 0 251 3 24559598
-0.051396 0.079989 0.023230 0 251 3 24917698
-0.058099 0.017032 0.008066 0 171 83 26797716
-0.057093 0.016945 0.008103 0 172 82 26976764
-0.056096 0.017059 0.008084 0 171 83 27215498
-0.054989 0.017189 0.008060 0 171 83 27364704
-0.054094 0.017197 0.008081 0 171 83 27424388
-0.053095 0.017056 0.008081 0 171 83 27245338
-0.051953 0.016630 0.008118 0 172 82 27185656
-0.050951 0.016414 0.008135 0 172 82 27185656
-0.050094 0.016303 0.008152 0 172 82 27096130
-0.049103 0.016477 0.008080 0 171 83 27066290
-0.048099 0.016511 0.008104 0 172 82 27185656
-0.047106 0.016481 0.008097 0 171 83 27245338
-0.046093 0.016296 0.008143 0 172 82 27424388
-0.045095 0.016031 0.008161 0 172 82 27513912
-0.044087 0.015698 0.008201 0 172 82 27603438
-0.043093 0.015560 0.008209 0 172 82 27752646
-0.042095 0.015558 0.008209 0 172 82 27842170
-0.041098 0.015688 0.008198 0 172 82 28021220
-0.040093 0.015864 0.008167 0 172 82 27991378
-0.039100 0.015957 0.008177 0 172 82 28051060
-0.038098 0.016063 0.008164 0 172 82 27901852
-0.037092 0.016056 0.008160 0 172 82 27872012
-0.036098 0.016046 0.008162 0 172 82 27872012
-0.035094 0.016139 0.008150 0 172 82 27752646
-0.034092 0.016398 0.008128 0 172 82 27543754
-0.033138 0.016767 0.008114 0 172 82 27334864
-0.032105 0.017325 0.008058 0 171 83 26976764
-0.031120 0.017672 0.008052 0 171 83 26439616
-0.030091 0.017873 0.008025 0 171 83 25962152
-0.029077 0.017729 0.008036 0 171 83 25842786
-0.028178 0.017308 0.007997 0 171 83 26111360
-0.017316 0.033100 0.060361 188 255 0 21575444
-0.064618 0.027396 0.089192 255 171 0 23694194
0.012159 0.039826 0.065156 213 255 0 25425004
-0.045698 0.040506 0.067208 224 255 0 27066290
-0.069767 0.077258 0.100821 255 111 0 29185040
-0.064017 0.075135 0.095337 255 139 0 35959072
0.004803 0.025191 0.059657 185 255 0 24201500
-0.088316 0.055817 0.058804 180 255 0 23724036
-0.018087 0.003236 0.009204 0 177 77 25991994
-0.017096 0.002741 0.009239 0 177 77 25872628
-0.016092 0.002509 0.009260 0 178 76 26021834
-0.015089 0.002285 0.009284 0 178 76 26439616
-0.014083 0.001950 0.009315 0 178 76 26469458
-0.013095 0.001664 0.009324 0 178 76 26529142
-0.012097 0.001528 0.009330 0 178 76 26529142
-0.011091 0.001433 0.009343 0 178 76 26767874
-0.010103 0.001398 0.009336 0 178 76 27006606
-0.009114 0.001120 0.009351 0 178 76 27006606
-0.008093 0.000586 0.009406 0 179 75 26588824
-0.007118 0.000151 0.009432 0 179 75 26320250
-0.006113 -0.000202 0.009463 0 179 75 26171042
-0.005117 -0.000475 0.009480 0 179 75 26021834
-0.004099 -0.000650 0.009500 0 179 75 26021834
-0.003098 -0.000691 0.009498 0 179 75 25902468
-0.002092 -0.000656 0.009497 0 179 75 25842786
-0.001091 -0.000527 0.009488 0 179 75 25932310
-0.000071 -0.000206 0.009456 0 179 75 26021834
0.000932 0.000276 0.009418 0 179 75 26260568
0.001930 0.001003 0.009364 0 178 76 26529142
0.002916 0.001736 0.009309 0 178 76 26946924
0.003910 0.001729 0.009311 0 178 76 26946924
0.004904 0.001526 0.009332 0 178 76 26648508
0.005904 0.001497 0.009333 0 178 76 26469458
0.006907 0.001519 0.009332 0 178 76 26409776
0.007903 0.001658 0.009322 0 178 76 26439616
0.008901 0.001911 0.009304 0 178 76 26558982
-0.028104 0.025714 0.051468 142 255 0 22082750
-0.019102 0.021688 0.051637 143 255 0 22052908
0.005898 0.018304 0.050365 136 255 0 24350708
-0.018118 0.020483 0.050320 136 255 0 22112592
-0.016088 0.020077 0.050271 136 255 0 22202116
-0.018103 0.021426 0.051656 143 255 0 22082750
-0.017108 0.021284 0.051672 143 255 0 22172274
-0.016105 0.021172 0.051667 143 255 0 22052908
0.001895 0.017595 0.050375 136 255 0 24171658
0.000901 0.017437 0.050400 136 255 0 23873244
0.002779 0.041822 0.066462 220 255 0 23843402
0.000900 0.018196 0.051774 144 255 0 23753876
0.001897 0.018331 0.051761 144 255 0 23903084
-0.065906 0.020332 0.085168 255 192 0 22948154
-0.075120 0.005278 0.053787 154 255 0 23783718
-0.009094 0.019938 0.053122 151 255 0 22590056
-0.070082 0.004776 0.055215 162 255 0 22321482
-0.040094 0.027937 0.054154 156 255 0 25126588
-0.061404 0.113690 0.107359 255 77 0 23007838
-0.041011 0.056408 0.063163 203 255 0 28826942
-0.027277 0.061501 0.090058 255 166 0 25245954
-0.060675 0.117907 0.102563 255 102 0 19277644
-0.080127 0.006105 0.059364 183 255 0 26558982
0.007903 0.024130 0.058623 179 255 0 24201500
-0.086634 0.048912 0.076729 255 236 0 25066906
-0.093311 0.042841 0.061690 195 255 0 25335480
0.031381 0.035541 0.052949 150 255 0 25425004
-0.037561 0.062639 0.109560 255 65 0 24619282
-0.076096 0.005961 0.067907 228 255 0 24022450
-0.073111 0.012057 0.077633 255 231 0 23813560
-0.078037 0.013728 0.078960 255 224 0 23873244
0.042486 0.065905 0.024958 5 255 0 24052292
0.025543 0.016310 0.036917 67 255 0 25574212
0.014119 0.006511 0.027521 17 255 0 25962152
-0.062406 0.099694 0.101089 255 109 0 38047980
-0.062992 0.107692 0.094705 255 142 0 28737416
0.043990 0.033942 0.026521 12 255 0 25066906
0.037502 0.056936 0.044507 106 255 0 25126588
-0.089355 0.028921 0.075479 255 243 0 25544370
-0.025918 0.087689 0.027891 20 255 0 25962152
-0.074056 0.065998 0.079213 255 223 0 35392084
0.044471 0.045939 0.032188 42 255 0 25305638
0.044427 0.044945 0.032173 42 255 0 25335480
0.044565 0.046942 0.032186 42 255 0 25365320
0.037099 0.061930 0.041634 91 255 0 25066906
-0.005092 0.044699 0.065665 216 255 0 22530374
-0.072012 0.059247 0.091619 255 159 0 31811096
-0.023174 0.070465 0.119230 255 15 0 21306870
-0.093620 0.034803 0.054949 160 255 0 26260568
-0.066837 0.052912 0.089939 255 167 0 32199036
-0.075174 0.045700 0.090678 255 163 0 24440232
-0.054679 0.035486 0.088620 255 174 0 25126588
0.028695 0.030864 0.053426 152 255 0 25126588
-0.039136 0.058940 0.106990 255 79 0 25007222
-0.057506 0.026291 0.087496 255 180 0 22052908
-0.074817 0.033901 0.090426 255 165 0 22560214
0.010164 0.027641 0.061078 192 255 0 24440232
-0.044988 0.038729 0.065464 215 255 0 26678350
-0.004089 0.047204 0.065822 216 255 0 22918314
-0.005236 0.047625 0.065657 216 255 0 22619898
-0.006441 0.048069 0.065426 215 255 0 22500532
-0.034956 0.060223 0.109236 255 67 0 25216112
-0.008865 0.010318 0.034900 56 255 0 25753260
-0.017036 0.053410 0.062508 199 255 0 22918314
-0.018287 0.053870 0.062130 198 255 0 23276412
-0.079508 0.044878 0.005476 0 158 96 23186888
-0.062092 0.017308 0.009464 0 179 75 26320250
-0.061085 0.016945 0.009506 0 179 75 26379934
-0.060074 0.016603 0.009558 0 180 74 26499300
-0.059094 0.016291 0.009547 0 180 74 26439616
-0.058087 0.016069 0.009586 0 180 74 26379934
-0.057094 0.016047 0.009575 0 180 74 26618666
-0.056096 0.016144 0.009547 0 180 74 26827556
-0.055098 0.016253 0.009527 0 179 75 27096130
-0.054096 0.016280 0.009541 0 179 75 27215498
-0.053092 0.016059 0.009583 0 180 74 27096130
-0.052093 0.015793 0.009596 0 180 74 27036448
-0.051085 0.015485 0.009662 0 180 74 26887240
-0.050094 0.015399 0.009619 0 180 74 26976764
-0.049097 0.015463 0.009580 0 180 74 27066290
-0.048092 0.015687 0.009551 0 180 74 27066290
-0.047096 0.015844 0.009557 0 180 74 27096130
-0.046096 0.016028 0.009565 0 180 74 27424388
-0.045091 0.015938 0.009579 0 180 74 27454230
-0.044095 0.015650 0.009597 0 180 74 27543754
-0.043091 0.015438 0.009621 0 180 74 27663120
-0.042092 0.015313 0.009634 0 180 74 27752646
-0.041096 0.015327 0.009635 0 180 74 27961536
-0.040093 0.015493 0.009603 0 180 74 27931694
-0.039091 0.015736 0.009581 0 180 74 28021220
-0.038097 0.016025 0.009565 0 180 74 27931694
-0.037097 0.016165 0.009554 0 180 74 27663120
-0.036093 0.016130 0.009553 0 180 74 27603438
-0.035097 0.016158 0.009554 0 180 74 27543754
-0.034101 0.016305 0.009544 0 180 74 27364704
-0.033101 0.016683 0.009510 0 179 75 27185656
-0.032090 0.017151 0.009467 0 179 75 26797716
-0.031096 0.017441 0.009451 0 179 75 26379934
-0.030078 0.017538 0.009474 0 179 75 25991994
-0.029144 0.017427 0.009401 0 179 75 25962152
-0.028329 0.016882 0.009346 0 178 76 26350092
-0.068691 0.036150 0.091155 255 161 0 24111976
-0.056583 0.030361 0.088628 255 174 0 23037680
-0.038423 0.030282 0.057008 171 255 0 25007222
-0.062720 0.042738 0.090930 255 162 0 27543754
-0.016208 0.044416 0.063429 204 255 0 21903700
-0.067427 0.042961 0.091052 255 161 0 25484686
-0.015057 0.038180 0.063073 202 255 0 21217344
-0.019079 0.003368 0.010592 0 185 69 26081518
-0.018101 0.002845 0.010615 0 185 69 25753260
-0.017100 0.002483 0.010643 0 185 69 25783102
-0.016092 0.002268 0.010668 0 185 69 26021834
-0.015086 0.001928 0.010697 0 186 68 26260568
-0.014080 0.001595 0.010729 0 186 68 26290408
-0.013094 0.001303 0.010739 0 186 68 26469458
-0.012108 0.001124 0.010738 0 186 68 26558982
-0.011090 0.000964 0.010769 0 186 68 26618666
-0.010099 0.000928 0.010765 0 186 68 26738032
-0.009102 0.000911 0.010763 0 186 68 26917082
-0.008114 0.000744 0.010770 0 186 68 26887240
-0.007110 0.000280 0.010812 0 186 68 26529142
-0.006111 -0.000081 0.010842 0 186 68 26260568
-0.005102 -0.000411 0.010869 0 186 68 26111360
-0.004111 -0.000595 0.010885 0 186 68 25991994
-0.003099 -0.000697 0.010893 0 186 68 25872628
-0.002091 -0.000688 0.010891 0 186 68 25932310
-0.001087 -0.000548 0.010879 0 186 68 25962152
-0.000076 -0.000314 0.010858 0 186 68 25991994
0.000918 0.000015 0.010830 0 186 68 26290408
0.001925 0.000767 0.010775 0 186 68 26409776
0.002931 0.001691 0.010704 0 186 68 26946924
0.003907 0.001728 0.010713 0 186 68 26887240
0.004911 0.001688 0.010709 0 186 68 26678350
0.005904 0.001604 0.010715 0 186 68 26529142
0.006907 0.001617 0.010715 0 186 68 26409776
0.007909 0.001748 0.010703 0 186 68 26379934
0.008918 0.001973 0.010688 0 185 69 26439616
0.009906 0.002372 0.010654 0 185 69 26767874
-0.001093 0.017279 0.050421 136 255 0 23813560
-0.003087 0.017451 0.050392 136 255 0 23544986
-0.026096 0.022972 0.048716 128 255 0 22530374
-0.005094 0.017913 0.050388 136 255 0 23544986
-0.029099 0.025737 0.051446 142 255 0 22351324
-0.030099 0.025859 0.051445 142 255 0 22709422
-0.032101 0.025941 0.051472 142 255 0 23246570
-0.033098 0.025968 0.051444 142 255 0 23395778
0.006878 0.018494 0.050325 136 255 0 24470074
-0.011096 0.019414 0.051744 144 255 0 22560214
-0.009076 0.018855 0.051721 143 255 0 22709422
-0.000097 0.018074 0.051777 144 255 0 23694194
-0.086216 0.031201 0.085944 255 188 0 22619898
-0.089112 0.018918 0.070008 238 255 0 26081518
-0.030096 0.027296 0.052761 149 255 0 22709422
-0.013110 0.020644 0.053125 151 255 0 21873858
-0.069084 0.004944 0.055214 162 255 0 22261800
-0.041103 0.028146 0.054189 157 255 0 25216112
-0.016462 0.047402 0.063242 203 255 0 22381166
-0.063160 0.110689 0.108936 255 68 0 25425004
0.013184 0.006100 0.027523 17 255 0 25872628
-0.063116 0.109689 0.094689 255 142 0 26767874
-0.079131 0.005962 0.059366 183 255 0 26499300
0.039799 0.069880 0.024742 3 255 0 23783718
-0.070429 0.073974 0.029966 30 255 0 22590056
-0.024786 0.029794 0.055842 165 255 0 21724652
-0.003194 0.049746 0.065773 216 255 0 23544986
-0.074107 0.006463 0.067887 228 255 0 24380550
-0.016693 0.035814 0.061833 196 255 0 21426236
0.041335 0.067894 0.024864 4 255 0 23992610
-0.055232 0.068069 0.055984 166 255 0 26200884
-0.042093 0.055244 0.103045 255 99 0 26588824
-0.093066 0.032791 0.054943 160 255 0 26917082
0.041816 0.046941 0.039085 78 255 0 25007222
-0.088482 0.037702 0.033169 47 255 0 27663120
-0.085168 0.055881 0.073891 255 251 0 24320866
-0.061317 0.084685 0.090125 255 166 0 33959688
-0.074490 0.094101 0.098607 255 122 0 38256872
-0.093584 0.040849 0.061713 195 255 0 25514528
-0.048693 0.046709 0.074976 255 245 0 31721572
-0.048321 0.059084 0.101815 255 106 0 25425004
-0.048091 0.051651 0.097072 255 130 0 29990762
-0.019108 0.019753 0.048916 129 255 0 22381166
0.040936 0.043940 0.040449 85 255 0 25126588
-0.070972 0.102059 0.097236 255 130 0 38525444
-0.063247 0.048723 0.090417 255 165 0 31244106
-0.016846 0.029988 0.058957 181 255 0 21515760
0.026552 0.031645 0.055481 163 255 0 25514528
-0.038060 0.058524 0.107043 255 78 0 25335480
-0.015878 0.036994 0.062472 199 255 0 21396394
-0.026376 0.033361 0.057031 171 255 0 22142432
-0.075390 0.053065 0.089828 255 168 0 27096130
-0.001792 0.046361 0.066122 218 255 0 23455462
-0.002940 0.046782 0.065977 217 255 0 23246570
-0.038428 0.061531 0.108730 255 70 0 24410392
-0.037188 0.061086 0.109041 255 68 0 24738648
-0.036049 0.060671 0.109164 255 68 0 25066906
-0.014475 0.052466 0.063357 204 255 0 22619898
-0.015792 0.052953 0.062915 201 255 0 22888472
-0.074222 0.080336 0.101639 255 106 0 27752646
-0.062406 0.077149 0.022989 0 249 5 23664352
-0.063079 0.016960 0.010917 0 186 68 26618666
-0.062096 0.016659 0.010916 0 186 68 26588824
-0.061081 0.016325 0.010964 0 186 68 26618666
-0.060096 0.016027 0.010969 0 186 68 26648508
-0.059091 0.015659 0.011005 0 187 67 26588824
-0.058095 0.015397 0.011022 0 187 67 26588824
-0.057096 0.015267 0.011033 0 187 67 26708190
-0.056096 0.015283 0.011039 0 187 67 26767874
-0.055097 0.015372 0.011012 0 187 67 26946924
-0.054097 0.015489 0.010996 0 187 67 27125972
-0.053097 0.015501 0.011002 0 187 67 27215498
-0.052090 0.015304 0.011047 0 187 67 27096130
-0.051090 0.015043 0.011065 0 187 67 26857398
-0.050098 0.014862 0.011056 0 187 67 26618666
-0.049096 0.014760 0.011075 0 187 67 26738032
-0.048097 0.014885 0.011065 0 187 67 26887240
-0.047095 0.015237 0.011026 0 187 67 27155814
-0.046095 0.015751 0.010986 0 187 67 27394546
-0.045095 0.015919 0.010982 0 187 67 27394546
-0.044092 0.015673 0.011000 0 187 67 27513912
-0.043081 0.015353 0.011033 0 187 67 27692962
-0.042083 0.015110 0.011054 0 187 67 27782486
-0.041094 0.015063 0.011056 0 187 67 27842170
-0.040101 0.015108 0.011062 0 187 67 27872012
-0.039098 0.015412 0.011022 0 187 67 27961536
-0.038114 0.015764 0.011014 0 187 67 27872012
-0.037100 0.015918 0.010981 0 186 68 27812328
-0.036101 0.016066 0.010969 0 186 68 27484072
-0.035103 0.016199 0.010958 0 186 68 27364704
-0.034108 0.016332 0.010948 0 186 68 27215498
-0.033104 0.016566 0.010926 0 186 68 27006606
-0.032104 0.016829 0.010909 0 186 68 26767874
-0.031095 0.017194 0.010875 0 186 68 26350092
-0.030107 0.017260 0.010855 0 186 68 26111360
-0.029224 0.016963 0.010804 0 186 68 26111360
-0.071661 0.077909 0.101421 255 107 0 28110744
-0.072685 0.078326 0.101417 255 107 0 27752646
-0.073995 0.078801 0.100959 255 110 0 27722804
-0.017465 0.044870 0.063067 202 255 0 21993226
-0.063445 0.074923 0.094346 255 145 0 36824476
-0.033175 0.063921 0.112119 255 52 0 24499916
-0.080677 0.038837 0.089762 255 168 0 23425620
-0.019087 0.002750 0.012023 0 192 62 25604054
-0.018085 0.002396 0.012053 0 192 62 25484686
-0.017098 0.002126 0.012058 0 192 62 25753260
-0.016108 0.001961 0.012058 0 192 62 25962152
-0.015092 0.001667 0.012100 0 192 62 26141202
-0.014095 0.001538 0.012108 0 192 62 26350092
-0.013092 0.001186 0.012135 0 193 61 26439616
-0.012106 0.000896 0.012147 0 193 61 26469458
-0.011118 0.000654 0.012186 0 193 61 26588824
-0.010101 0.000434 0.012187 0 193 61 26439616
-0.009102 0.000422 0.012186 0 193 61 26648508
-0.008097 0.000451 0.012190 0 193 61 26797716
-0.007097 0.000444 0.012189 0 193 61 26887240
-0.006108 0.000149 0.012214 0 193 61 26499300
-0.005105 -0.000206 0.012244 0 193 61 26260568
-0.004113 -0.000392 0.012269 0 193 61 26111360
-0.003101 -0.000467 0.012269 0 193 61 26051676
-0.002093 -0.000454 0.012268 0 193 61 26021834
-0.001091 -0.000412 0.012256 0 193 61 26051676
-0.000074 -0.000219 0.012244 0 193 61 26081518
0.000936 0.000131 0.012216 0 193 61 26171042
0.001923 0.000650 0.012174 0 193 61 26409776
0.002907 0.001524 0.012107 0 192 62 26917082
0.003922 0.001927 0.012079 0 192 62 27036448
0.004908 0.001971 0.012076 0 192 62 26857398
0.005903 0.001898 0.012079 0 192 62 26797716
0.006911 0.001926 0.012088 0 192 62 26708190
0.007910 0.001977 0.012078 0 192 62 26648508
0.008908 0.002121 0.012065 0 192 62 26588824
0.009907 0.002489 0.012036 0 192 62 26797716
-0.039093 0.025558 0.051489 142 255 0 24828172
-0.002085 0.017360 0.050379 136 255 0 23694194
-0.027100 0.023082 0.048723 128 255 0 22500532
-0.028100 0.023196 0.048729 128 255 0 22500532
-0.004097 0.017631 0.050418 136 255 0 23485302
-0.038077 0.025884 0.051506 142 255 0 24440232
-0.037091 0.026083 0.051443 142 255 0 24410392
-0.036094 0.026181 0.051456 142 255 0 24141818
-0.031098 0.025869 0.051436 142 255 0 22948154
-0.025122 0.025191 0.051505 142 255 0 22231958
-0.010077 0.019111 0.051712 143 255 0 22649740
0.002897 0.018450 0.051761 144 255 0 23903084
0.042985 0.055917 0.034882 56 255 0 24858014
-0.025169 0.065085 0.056766 169 255 0 25037064
0.038255 0.058935 0.041707 91 255 0 25245954
-0.014122 0.020994 0.053132 151 255 0 21933542
-0.043095 0.028564 0.054128 156 255 0 25216112
0.001686 0.042222 0.066411 219 255 0 23783718
-0.061188 0.079686 0.090139 255 166 0 33840324
0.039876 0.031921 0.037582 70 255 0 25156430
-0.083517 0.056832 0.047725 123 255 0 25275796
-0.078127 0.005841 0.059380 183 255 0 26379934
0.005905 0.024159 0.058594 179 255 0 24320866
-0.084318 0.024534 0.045842 113 255 0 31214266
-0.094034 0.035819 0.056311 167 255 0 25902468
-0.080068 0.005418 0.065075 213 255 0 24052292
0.023197 0.035752 0.059602 184 255 0 26081518
-0.075102 0.009153 0.073473 255 253 0 24052292
-0.073115 0.009504 0.073476 255 253 0 24261184
0.015684 0.041384 0.063965 207 255 0 26260568
-0.069292 0.108039 0.092971 255 151 0 29752030
-0.070422 0.032369 0.090696 255 163 0 23843402
-0.085716 0.057661 0.030208 32 255 0 24082134
-0.061566 0.094720 0.094825 255 142 0 36347012
-0.037662 0.068059 0.108945 255 68 0 26230726
0.032394 0.061373 0.049244 130 255 0 25484686
0.036834 0.060923 0.043032 98 255 0 25216112
0.037231 0.059930 0.043064 98 255 0 25305638
-0.085159 0.031758 0.046571 117 255 0 29572980
-0.003585 0.026750 0.060922 191 255 0 22411006
-0.002650 0.026409 0.060661 190 255 0 22739264
-0.018135 0.030412 0.058642 179 255 0 21694810
0.025166 0.032162 0.056941 171 255 0 25544370
0.010927 0.024431 0.058181 177 255 0 24440232
-0.058706 0.041301 0.090484 255 164 0 28140586
0.005838 0.043561 0.066479 220 255 0 24499916
0.004811 0.043936 0.066522 220 255 0 24499916
-0.041373 0.062568 0.107368 255 77 0 24440232
-0.039783 0.062018 0.108219 255 72 0 24380550
-0.010770 0.051101 0.064391 209 255 0 22291640
-0.012030 0.051567 0.064037 207 255 0 22261800
-0.013221 0.052004 0.063742 206 255 0 22470690
-0.071935 0.037284 0.091132 255 161 0 22828788
-0.062636 0.026693 0.088876 255 173 0 23216728
-0.011779 0.008294 0.033256 47 255 0 26021834
-0.063094 0.016412 0.012344 0 194 60 26797716
-0.062091 0.016168 0.012368 0 194 60 26738032
-0.061081 0.015945 0.012396 0 194 60 26767874
-0.060068 0.015604 0.012438 0 195 59 26708190
-0.059073 0.015212 0.012464 0 195 59 26618666
-0.058084 0.014919 0.012476 0 195 59 26499300
-0.057096 0.014753 0.012476 0 195 59 26469458
-0.056096 0.014627 0.012487 0 195 59 26558982
-0.055096 0.014625 0.012487 0 195 59 26588824
-0.054097 0.014833 0.012445 0 195 59 26887240
-0.053097 0.014975 0.012443 0 195 59 26946924
-0.052092 0.014926 0.012480 0 195 59 26976764
-0.051095 0.014639 0.012490 0 195 59 26767874
-0.050097 0.014347 0.012501 0 195 59 26558982
-0.049095 0.014236 0.012517 0 195 59 26499300
-0.048091 0.014344 0.012501 0 195 59 26797716
-0.047096 0.014761 0.012476 0 195 59 27125972
-0.046107 0.015317 0.012441 0 195 59 27394546
-0.045095 0.015893 0.012381 0 194 60 27454230
-0.044083 0.015759 0.012404 0 194 60 27484072
-0.043085 0.015355 0.012431 0 195 59 27692962
-0.042083 0.015088 0.012452 0 195 59 27752646
-0.041092 0.014930 0.012464 0 195 59 27752646
-0.040096 0.014926 0.012467 0 195 59 27901852
-0.039103 0.015107 0.012464 0 195 59 27872012
-0.038108 0.015352 0.012447 0 195 59 27842170
-0.037105 0.015698 0.012411 0 194 60 27692962
-0.036111 0.015972 0.012394 0 194 60 27543754
-0.035109 0.016203 0.012367 0 194 60 27394546
-0.034107 0.016449 0.012345 0 194 60 27185656
-0.033102 0.016687 0.012322 0 194 60 26827556
-0.032091 0.016885 0.012297 0 194 60 26618666
-0.031078 0.017017 0.012316 0 194 60 26350092
-0.030159 0.017007 0.012242 0 193 61 26200884
-0.071095 0.042811 0.091110 255 161 0 23753876
-0.068464 0.015183 0.020906 0 238 16 25932310
-0.066290 0.030922 0.090327 255 165 0 24499916
-0.079351 0.045693 0.089807 255 168 0 23843402
-0.065227 0.075578 0.097151 255 130 0 32795868
-0.031887 0.063464 0.112518 255 50 0 24141818
-0.092597 0.042867 0.064439 210 255 0 25723420
-0.090942 0.026793 0.050897 139 255 0 28737416
-0.020074 0.002409 0.013450 0 200 54 25096746
-0.019085 0.002037 0.013469 0 200 54 24828172
-0.018103 0.001746 0.013468 0 200 54 24887856
-0.017092 0.001432 0.013510 0 200 54 25096746
-0.016089 0.001334 0.013523 0 200 54 25484686
-0.015099 0.001394 0.013500 0 200 54 26021834
-0.014095 0.001414 0.013504 0 200 54 26290408
-0.013098 0.001158 0.013522 0 200 54 26469458
-0.012096 0.000810 0.013549 0 200 54 26439616
-0.011099 0.000438 0.013574 0 201 53 26469458
-0.010122 0.000179 0.013598 0 201 53 26409776
-0.009096 0.000094 0.013603 0 201 53 26558982
-0.008098 0.000188 0.013594 0 201 53 26738032
-0.007100 0.000393 0.013579 0 201 53 27006606
-0.006107 0.000352 0.013590 0 201 53 26797716
-0.005105 0.000119 0.013612 0 201 53 26379934
-0.004109 -0.000029 0.013634 0 201 53 26171042
-0.003100 -0.000108 0.013632 0 201 53 26051676
-0.002096 -0.000165 0.013624 0 201 53 26021834
-0.001092 -0.000047 0.013615 0 201 53 26081518
-0.000082 0.000148 0.013605 0 201 53 26230726
0.000926 0.000396 0.013580 0 201 53 26320250
0.001938 0.000835 0.013544 0 200 54 26439616
0.002926 0.001340 0.013506 0 200 54 26767874
0.003922 0.001925 0.013462 0 200 54 27096130
0.004915 0.002172 0.013449 0 200 54 27096130
0.005908 0.002228 0.013444 0 200 54 27006606
0.006912 0.002301 0.013442 0 200 54 26976764
0.007910 0.002338 0.013438 0 200 54 26887240
0.008909 0.002470 0.013427 0 199 55 26797716
0.009909 0.002712 0.013408 0 199 55 26797716
0.017903 0.021331 0.050217 136 255 0 25305638
0.013909 0.020921 0.050252 136 255 0 25275796
-0.029103 0.023309 0.048731 128 255 0 22381166
-0.032111 0.023783 0.048733 128 255 0 23336096
0.003889 0.017840 0.050366 136 255 0 24231342
-0.007091 0.017814 0.050379 136 255 0 23216728
-0.043103 0.025729 0.051456 142 255 0 25007222
-0.035096 0.026173 0.051463 142 255 0 23873244
-0.034095 0.026088 0.051441 142 255 0 23634510
-0.024151 0.024520 0.051566 142 255 0 22082750
-0.005085 0.018632 0.051731 143 255 0 23515144
0.003892 0.018594 0.051742 144 255 0 23873244
0.038044 0.054945 0.044559 106 255 0 25007222
-0.084996 0.036753 0.043866 103 255 0 28409160
-0.025117 0.026106 0.052870 149 255 0 21903700
-0.012087 0.020329 0.053098 151 255 0 22112592
-0.076083 0.012030 0.077646 255 231 0 24022450
-0.044095 0.028693 0.054120 156 255 0 25275796
0.005362 0.042305 0.066453 220 255 0 24320866
-0.076971 0.071006 0.091780 255 157 0 31303790
0.039006 0.038927 0.043222 99 255 0 25186272
-0.045100 0.031992 0.056832 170 255 0 25335480
-0.077120 0.005739 0.059396 183 255 0 26171042
0.004905 0.024257 0.058616 179 255 0 24231342
-0.049368 0.042704 0.074972 255 245 0 29393930
-0.088014 0.047712 0.037148 68 255 0 26827556
-0.079107 0.005203 0.065101 213 255 0 24082134
0.007879 0.039964 0.066022 218 255 0 24678966
-0.074112 0.009287 0.073461 255 253 0 24171658
0.002547 0.047623 0.066492 220 255 0 24350708
-0.016797 0.054782 0.062260 198 255 0 23127204
-0.033240 0.071059 0.110410 255 61 0 28349476
-0.051095 0.048560 0.092681 255 153 0 32736184
-0.071925 0.112112 0.111308 255 56 0 22918314
-0.080616 0.065673 0.031240 37 255 0 23097362
0.028723 0.029398 0.052282 146 255 0 25186272
-0.026152 0.065813 0.115188 255 36 0 24291024
-0.067584 0.050281 0.090389 255 165 0 29214882
-0.067211 0.051593 0.090149 255 166 0 30557752
0.023689 0.032707 0.058212 177 255 0 25663736
-0.064113 0.033071 0.090687 255 163 0 24619282
-0.086149 0.043628 0.087754 255 178 0 21545602
0.006867 0.043186 0.066418 219 255 0 24649124
-0.077729 0.023316 0.035604 59 255 0 30229494
-0.043089 0.063139 0.106172 255 83 0 24380550
-0.008369 0.050218 0.064919 212 255 0 22530374
-0.009568 0.050660 0.064655 210 255 0 22291640
-0.078812 0.039668 0.090351 255 165 0 23336096
-0.076497 0.038867 0.090658 255 163 0 23544986
-0.075344 0.038470 0.090793 255 163 0 23365936
-0.093094 0.040800 0.052228 146 255 0 25902468
-0.054664 0.038379 0.088900 255 172 0 26618666
-0.081042 0.049195 0.088700 255 174 0 23932926
-0.025413 0.092933 0.024262 1 255 0 24380550
-0.064093 0.015900 0.013788 0 201 53 26618666
-0.063087 0.015674 0.013821 0 201 53 26678350
-0.062096 0.015641 0.013806 0 201 53 26827556
-0.061105 0.015600 0.013794 0 201 53 26917082
-0.060085 0.015309 0.013850 0 201 53 26857398
-0.059078 0.014945 0.013882 0 202 52 26738032
-0.058102 0.014604 0.013885 0 202 52 26409776
-0.057071 0.014208 0.013952 0 202 52 26290408
-0.056084 0.013926 0.013969 0 202 52 26171042
-0.055095 0.013883 0.013957 0 202 52 26350092
-0.054095 0.014017 0.013951 0 202 52 26409776
-0.053095 0.014239 0.013918 0 202 52 26678350
-0.052095 0.014387 0.013914 0 202 52 26767874
-0.051096 0.014295 0.013932 0 202 52 26708190
-0.050097 0.014104 0.013928 0 202 52 26588824
-0.049098 0.014024 0.013948 0 202 52 26499300
-0.048086 0.014176 0.013909 0 202 52 26797716
-0.047117 0.014447 0.013922 0 202 52 27006606
-0.046134 0.014958 0.013877 0 202 52 27394546
-0.045086 0.015714 0.013790 0 201 53 27484072
-0.044096 0.015929 0.013785 0 201 53 27573596
-0.043091 0.015581 0.013814 0 201 53 27633278
-0.042092 0.015287 0.013835 0 201 53 27692962
-0.041090 0.015055 0.013854 0 201 53 27692962
-0.040088 0.014955 0.013869 0 202 52 27901852
-0.039126 0.015138 0.013860 0 201 53 27901852
-0.038096 0.015267 0.013839 0 201 53 27722804
-0.037107 0.015469 0.013844 0 201 53 27722804
-0.036098 0.015522 0.013820 0 201 53 27663120
-0.035109 0.015814 0.013804 0 201 53 27573596
-0.034090 0.016263 0.013750 0 201 53 27155814
-0.033102 0.016570 0.013737 0 201 53 26976764
-0.032097 0.016829 0.013716 0 201 53 26529142
-0.031113 0.016974 0.013683 0 201 53 26350092
-0.030174 0.016521 0.013696 0 201 53 26379934
-0.029192 0.015307 0.013798 0 201 53 27245338
-0.074967 0.031013 0.089961 255 167 0 23186888
-0.059187 0.034218 0.090058 255 166 0 24678966
-0.034468 0.064391 0.111705 255 54 0 24559598
-0.030759 0.062946 0.112750 255 49 0 24022450
-0.022629 0.005805 0.025479 7 255 0 25723420
-0.007946 0.035626 0.064462 210 255 0 21157662
-0.084361 0.034763 0.043859 103 255 0 28797100
-0.088214 0.048694 0.035794 61 255 0 26171042
-0.020084 0.001796 0.014875 0 207 47 24529758
-0.019111 0.001379 0.014879 0 207 47 24261184
-0.018087 0.000967 0.014936 0 207 47 24231342
-0.017087 0.000765 0.014962 0 207 47 24470074
-0.016099 0.000884 0.014918 0 207 47 25007222
-0.015100 0.001130 0.014903 0 207 47 25693578
-0.014087 0.001232 0.014915 0 207 47 26021834
-0.013098 0.001035 0.014917 0 207 47 26290408
-0.012090 0.000600 0.014955 0 207 47 26529142
-0.011105 0.000293 0.014971 0 207 47 26499300
-0.010094 0.000099 0.014989 0 207 47 26439616
-0.009101 0.000021 0.014990 0 207 47 26439616
-0.008096 0.000083 0.014989 0 207 47 26558982
-0.007096 0.000291 0.014973 0 207 47 26797716
-0.006096 0.000481 0.014965 0 207 47 26917082
-0.005101 0.000492 0.014967 0 207 47 26827556
-0.004102 0.000380 0.014978 0 207 47 26678350
-0.003098 0.000296 0.014979 0 207 47 26588824
-0.002095 0.000374 0.014977 0 207 47 26558982
-0.001093 0.000414 0.014969 0 207 47 26499300
-0.000087 0.000513 0.014961 0 207 47 26499300
0.000924 0.000734 0.014942 0 207 47 26469458
0.001909 0.000916 0.014927 0 207 47 26588824
0.002929 0.001324 0.014885 0 207 47 26678350
0.003918 0.001718 0.014857 0 207 47 26767874
0.004921 0.002049 0.014833 0 207 47 26946924
0.005917 0.002288 0.014820 0 207 47 26946924
0.006922 0.002501 0.014807 0 207 47 27066290
0.007920 0.002659 0.014801 0 207 47 26887240
0.008914 0.002822 0.014790 0 207 47 26917082
0.009920 0.003036 0.014777 0 207 47 26857398
0.015896 0.020994 0.050214 136 255 0 25305638
0.014904 0.020939 0.050243 136 255 0 25245954
-0.030108 0.023415 0.048742 128 255 0 22709422
-0.031106 0.023559 0.048720 128 255 0 23097362
-0.006087 0.017966 0.050360 136 255 0 23485302
-0.010088 0.018309 0.050360 136 255 0 22977996
-0.011102 0.018629 0.050378 136 255 0 22888472
-0.041101 0.025554 0.051502 142 255 0 24947540
-0.026111 0.025592 0.051466 142 255 0 21963384
-0.023150 0.023775 0.051592 143 255 0 22261800
-0.006089 0.018819 0.051751 144 255 0 23306254
0.006889 0.019353 0.051707 143 255 0 24141818
0.039504 0.055927 0.041763 91 255 0 24977380
-0.032227 0.065032 0.112986 255 47 0 24231342
-0.026127 0.026563 0.052887 150 255 0 21784334
-0.011091 0.020194 0.053109 151 255 0 22202116
-0.041107 0.053892 0.100079 255 115 0 29334248
-0.042107 0.028386 0.054194 157 255 0 25156430
-0.077038 0.037594 0.090525 255 164 0 23515144
-0.073110 0.010354 0.074882 255 246 0 24231342
-0.022179 0.061127 0.094004 255 146 0 24141818
-0.046062 0.031052 0.056908 170 255 0 25514528
-0.076100 0.005445 0.059417 183 255 0 25633894
0.003904 0.024271 0.058601 179 255 0 23932926
-0.085533 0.050734 0.042459 95 255 0 26529142
-0.042047 0.066449 0.060004 186 255 0 26200884
-0.078098 0.005069 0.065110 213 255 0 24141818
-0.029103 0.024443 0.050107 135 255 0 22381166
-0.092337 0.048832 0.057560 174 255 0 24380550
0.012123 0.042691 0.065355 214 255 0 25604054
-0.080095 0.021869 0.084584 255 195 0 23664352
0.045324 0.056927 0.025182 5 255 0 25156430
0.023104 0.031500 0.057974 176 255 0 25604054
-0.026615 0.061701 0.090468 255 165 0 25305638
-0.025912 0.068661 0.117486 255 24 0 22530374
0.016303 0.026779 0.057615 174 255 0 25395162
-0.073518 0.021440 0.086050 255 187 0 23694194
-0.043210 0.037960 0.060566 189 255 0 25574212
0.020445 0.033913 0.060210 187 255 0 26171042
0.022920 0.032999 0.058791 180 255 0 25633894
-0.041379 0.038804 0.061144 192 255 0 25991994
-0.002786 0.029397 0.062794 201 255 0 22231958
0.008870 0.042457 0.066147 219 255 0 24887856
-0.029199 0.031360 0.055540 163 255 0 22709422
0.002016 0.046392 0.066417 219 255 0 24231342
0.000982 0.046772 0.066411 219 255 0 24141818
-0.080077 0.040101 0.089986 255 167 0 23336096
-0.082915 0.058729 0.040918 87 255 0 24589440
-0.081436 0.060942 0.051063 140 255 0 24171658
-0.091604 0.023791 0.050937 139 255 0 27334864
0.025235 0.039275 0.058771 180 255 0 26320250
0.025994 0.038990 0.058176 177 255 0 26350092
-0.066137 0.015879 0.015281 0 209 45 26499300
-0.065109 0.015480 0.015206 0 209 45 26409776
-0.064082 0.015059 0.015285 0 209 45 26290408
-0.063094 0.014890 0.015277 0 209 45 26290408
-0.062089 0.014922 0.015287 0 209 45 26588824
-0.061102 0.015087 0.015239 0 209 45 26857398
-0.060093 0.015018 0.015265 0 209 45 26917082
-0.059084 0.014800 0.015290 0 209 45 26797716
-0.058081 0.014414 0.015319 0 210 44 26588824
-0.057086 0.014018 0.015347 0 210 44 26409776
-0.056096 0.013603 0.015372 0 210 44 26111360
-0.055082 0.013320 0.015424 0 210 44 25962152
-0.054096 0.013270 0.015416 0 210 44 26021834
-0.053102 0.013482 0.015393 0 210 44 26260568
-0.052099 0.013792 0.015379 0 210 44 26648508
-0.051090 0.014044 0.015318 0 210 44 26767874
-0.050105 0.014042 0.015346 0 210 44 26708190
-0.049091 0.014064 0.015323 0 210 44 26767874
-0.048096 0.014107 0.015332 0 210 44 26887240
-0.047091 0.014346 0.015309 0 210 44 27125972
-0.046121 0.014709 0.015306 0 210 44 27334864
-0.045098 0.015428 0.015243 0 209 45 27573596
-0.044087 0.015881 0.015191 0 209 45 27543754
-0.043096 0.015850 0.015190 0 209 45 27633278
-0.042099 0.015749 0.015202 0 209 45 27633278
-0.041101 0.015487 0.015222 0 209 45 27782486
-0.040106 0.015326 0.015231 0 209 45 27901852
-0.039086 0.015196 0.015254 0 209 45 27842170
-0.038093 0.014940 0.015280 0 209 45 27872012
-0.037100 0.014820 0.015294 0 209 45 27961536
-0.036112 0.014967 0.015290 0 209 45 27842170
-0.035113 0.015446 0.015242 0 209 45 27663120
-0.034091 0.016009 0.015176 0 209 45 27215498
-0.033093 0.016519 0.015135 0 208 46 27066290
-0.032089 0.016649 0.015154 0 208 46 26618666
-0.031123 0.016812 0.015095 0 208 46 26230726
-0.030197 0.016127 0.015130 0 208 46 26499300
-0.029145 0.014465 0.015294 0 209 45 27633278
-0.059616 0.038732 0.090610 255 164 0 26529142
-0.086823 0.036407 0.087306 255 180 0 21873858
-0.085386 0.035968 0.087819 255 178 0 22321482
-0.011507 0.036898 0.063781 206 255 0 21038296
-0.026118 0.042122 0.060317 188 255 0 22948154
-0.084647 0.035751 0.043853 103 255 0 28618050
-0.028316 0.065110 0.056810 170 255 0 25126588
-0.022406 0.075170 0.119292 255 14 0 21903700
-0.020077 0.001447 0.016285 0 214 40 23992610
-0.019091 0.000935 0.016315 0 215 39 23664352
-0.018088 0.000599 0.016343 0 215 39 23664352
-0.017093 0.000473 0.016353 0 215 39 24052292
-0.016094 0.000588 0.016342 0 215 39 24678966
-0.015085 0.000986 0.016303 0 214 40 25395162
-0.014095 0.001167 0.016298 0 214 40 25962152
-0.013097 0.000802 0.016322 0 215 39 26021834
-0.012107 0.000511 0.016341 0 215 39 26171042
-0.011107 0.000267 0.016359 0 215 39 26409776
-0.010095 0.000092 0.016373 0 215 39 26499300
-0.009096 0.000072 0.016376 0 215 39 26529142
-0.008095 0.000151 0.016372 0 215 39 26618666
-0.007097 0.000345 0.016355 0 215 39 26827556
-0.006097 0.000779 0.016326 0 215 39 27066290
-0.005098 0.000771 0.016328 0 215 39 27036448
-0.004103 0.000707 0.016339 0 215 39 26827556
-0.003099 0.000633 0.016340 0 215 39 26648508
